# 3D point list with one line of data per point:
#   POINT3D_ID, X, Y, Z, R, G, B, ERROR, TRACK[] as (IMAGE_ID, POINT2D_IDX)
# Number of points: 413, mean track length: 3.3322694729578193
10756 -1.6985757484686042 0.42127282464260835 7.5745127956564922 88 91 102 0.68495297603084704 5 3347 10 3713
12209 -10.629819315668552 4.0055933509611155 -0.9746938689453315 211 211 211 0.24666590797110893 5 5368 21 2830
10758 -4.1215589945848325 3.9781299734496316 1.7824870256890204 129 120 84 0.87972730449224912 10 3785 21 980
10762 -3.5208854299543897 3.5584766541480146 2.5600135277236062 171 159 133 2.675545067611059 10 3889 21 5749
11706 -10.028474555329508 0.70513318498179411 4.144085458003163 132 133 128 0.29332577132175969 26 4363 19 6549
10763 -2.6347711102053171 4.1517885735277762 2.0247936376367202 222 220 207 0.46447202654600028 10 3897 21 803
12223 -5.2089003360776873 4.7606392667980781 0.21958466730668583 198 191 180 0.26768935938843486 19 5418 21 4490
10764 -0.64480482708026199 2.1963258378613775 5.4141676700854822 101 100 105 0.28296502394858986 8 3117 10 4035 17 2974
12217 -8.206199193360769 1.715367073253681 3.2414296392932052 95 95 105 1.7603740097223994 17 2547 19 2614 21 3090
10766 -5.7197170142284639 -0.29639169887192751 7.2776675512624944 233 234 220 0.78246480063639867 5 3839 10 4100
10768 -3.1807448007383567 1.6371742444304824 5.4225847786033823 111 119 142 0.40787990505914651 5 3946 10 4123
11650 -3.528500774920178 4.6623690036561189 0.91594142644034027 209 210 205 0.5168840350464341 26 5236 19 3775
10771 -4.6935394083073501 -0.1768085413654745 7.4556549988154401 229 227 214 1.1261310794350392 8 4979 10 4189
12167 -7.4081071587130962 5.1381454431431983 -1.2982263564628991 0 0 0 0.94470676602972325 5 2311 19 606
10772 -2.663094461195028 1.4011278463400489 5.8883959287227263 216 219 208 0.18837573371500255 5 4018 10 4198
12161 -10.711090118329635 3.8048084167454217 -0.69741759274344983 209 209 211 1.2372693389701419 19 314 21 389
10774 -2.8726623391310055 0.40982392692392094 7.2232717574415952 121 112 113 0.16060049737258536 8 4212 10 4282
10778 -1.2019292987683345 0.67331506248516504 7.3857544544386444 112 107 113 0.52654485180507382 5 3391 10 4417
11658 -4.0124265985321745 5.0148083541894879 0.30515827269019674 171 161 136 1.4742949830841952 26 4741 22 5740 12 6746
10779 -1.2969856842329008 0.58221864378779897 7.4812208767300712 107 100 94 0.64877590714662592 5 4936 10 4419
10782 -1.4343005241968008 0.21889288785901517 7.982865248936637 101 96 92 0.13798556078346944 5 5106 10 4448
10783 -0.9621573288707268 0.51172476231078723 7.7253462085850533 104 92 92 0.84055916095316197 5 3671 10 4466
10784 -0.41736025174445573 0.61011924718818933 7.7777164054953447 129 107 68 2.2454863962101363 8 4531 10 4530
12113 -12.700094306912224 0.15964498376591135 4.3994017739563471 172 166 152 0.64238019316890316 22 7083 19 7005
11456 -7.0752722380505606 3.6317562372166581 1.1812535022104982 121 119 98 0.37334362062220172 22 3972 12 2497
10790 -15.513713407303378 2.9988592915162031 -1.3293454611996938 188 182 160 2.2544819405279664 5 4825 10 4696 21 2673
10794 -17.198352506207883 1.7357342894617998 -0.040590754441180543 203 195 189 1.1784549952807326 5 4813 10 4703 21 2670
11610 -2.3712968988947187 -0.047587475561336801 8.0578558952780703 0 0 0 0.35800477943781972 14 9813 17 6717
10795 -12.232188523519691 3.567498431176872 -1.3857986439360457 201 197 181 1.9439937477222553 5 4792 10 4709 21 2515
12127 -6.0310745311829352 2.0281929780544306 3.8348664534632513 187 168 136 0.74510776936051448 22 7463 19 7624 21 5286
10796 -11.567252626735643 4.5766858052464681 -2.2707221601847043 202 195 180 1.7491224082653927 5 4790 10 4711 21 2744
11464 -7.4424559110494171 2.8568546112446573 2.1473130461535899 206 205 184 0.18341290874737864 26 3466 22 4073
10798 -11.42911992355465 4.6456368796302678 -2.2567564478069695 219 217 202 1.7066257423503692 5 4786 10 4718 21 2755
10799 -18.387639053875819 0.39165848693984573 1.5816232962219674 188 179 166 1.3379835495898711 5 4798 10 4729 21 2676
10800 -10.797238828331976 4.7511282772721612 -2.1353961302831386 223 218 200 1.7502547853667796 5 4761 10 4730 21 2468
12193 -5.6044230150049152 5.1116944747267938 -0.46485579026054569 184 169 139 0.88984465865299289 19 1830 21 2159
11472 -8.343915113820076 2.6113433789092659 2.1321347240546258 118 120 115 0.91940482550679026 26 4860 22 4127 19 4221
10806 -16.512280644342493 1.2251692495262598 1.1772201008756553 223 216 204 1.0649736771826772 5 4776 10 4749 21 5098
10810 -15.647237235272382 1.6328855772380619 0.92039233182709945 128 122 122 0.45259987065599661 5 4763 10 4756 21 2725
11690 -7.4829909115261417 -1.4666331948112461 8.2564640551761688 206 205 200 0.098163639688530382 3 4441 22 6281
10811 -17.930750863751804 -0.022928117625196281 2.3775491398808932 170 159 134 1.5161458636202931 5 5321 10 4758 21 5106
10812 -17.751363634592426 0.11111248793720767 2.27627890357989 221 215 202 1.4960920655327021 5 4774 10 4759 21 5104
12201 -10.158609070905065 4.3380301396528527 -1.302575922860348 218 222 223 1.5302410089126925 19 1221 21 2406
11480 -7.3924383318039704 1.8011993403312434 3.7484533505228677 173 174 170 0.35928228970048953 26 4238 22 4178 19 4193
10814 -13.934497079776705 2.5719350122814739 0.13493941348504113 183 177 170 1.8436983096459723 5 4750 10 4762 21 6506 19 6427
10815 -17.725824215897983 0.18233529355191899 2.2397282524818554 196 188 175 0.9461430736334675 5 4770 10 4763 21 2706
10819 -8.8242804829104706 5.3800881239623113 -2.1990190324527163 151 147 135 1.17041981919301 10 4779 21 1340
12279 -8.9059174044912055 4.8936688665830017 -1.7222564288117386 203 205 204 1.178022253497367 5 1329 21 1171
10820 -16.311925629865577 0.92277759162268058 1.6979488713795408 204 200 197 1.6375454223016479 5 2632 10 4780 21 2723
12273 -4.62914919615715 0.55860455326072522 6.4329147786011411 100 111 125 0.98134220444907305 3 2966 2 2717 11 2062 26 4437 24 1638
10822 -16.044931027385154 1.0328749410641891 1.6604164817598892 204 198 190 0.49723729351434232 5 4748 10 4786 21 2733
11770 -10.821434104089118 0.5034136549865611 4.4438257221458937 151 145 129 1.5639279019526844 26 6061 22 7160 19 6511
10827 -17.139470019845135 0.027775564862304269 2.6938530392745945 192 182 167 0.79960184892475239 5 5348 10 4802 21 5079
12287 -12.945271549073386 2.3657039555522106 1.2779239185883959 0 0 0 1.1343057066536641 5 4651 8 6049
10828 -17.079370760465629 -0.12305687401797688 2.8486981995438412 207 204 189 1.7119886730115346 5 4746 10 4805 21 5078
12281 -10.589931079386306 4.3931353478160498 -1.6723027820992085 221 225 224 1.1240711929614955 5 2397 21 1285
10830 -16.082734195355513 0.6487845589071517 2.2770758263491775 213 206 196 0.7912421894328987 5 3905 10 4813 21 2500
11714 -6.0548643441946073 3.8931795836391259 1.1308370141812198 204 197 179 0.42564344510765872 26 7697 22 6573 19 7813
10835 -10.002273838387282 4.163689606623608 -0.79197022711071263 208 202 189 2.2780788267598751 5 2704 10 4828 21 1338
11563 -4.815619533640386 2.2250535937481817 -0.12768019232396369 98 105 111 0.12573226805799559 26 6205 22 4932
10842 -7.5752482081570074 5.3322282375888017 -1.6624085916877289 136 133 118 0.34116358175936934 5 4629 21 1395
12233 -9.5829222383246648 4.8200995815295204 -1.764622198399215 185 184 180 1.3925070165241036 19 4035 21 4910
10846 -7.9603260480564364 4.6815658241143288 -0.77367403571423732 219 218 215 1.9314275412680413 5 2761 10 4882 21 2262
12076 -8.3085828540181872 4.028039769822259 0.064412947403022461 154 160 163 0.58441298720890889 22 5199 19 5070
10847 -14.667761737427831 0.65744667391758294 2.937436908236672 204 192 178 1.3422887326037112 5 4658 8 5986 21 6570
10848 -7.3928398311373309 4.8565594390540152 -0.80663202559448388 181 179 170 0.64554250914749001 10 4895 21 1415
11666 -2.3348898822450121 4.842877218207299 1.0954087912086368 208 207 194 1.4938462462352702 26 7885 22 5821 19 3392
10851 -5.7417824619615638 5.1875800392488829 -0.5807461106835079 164 161 144 0.038403437216253819 5 4521 21 1705
10852 -5.5771459474073666 5.1173303383241526 -0.41365397129408021 219 216 209 2.0956778523090933 5 4504 10 4971 21 1694
12177 -13.859829607293396 1.1645472700022037 2.3669457074578406 93 100 118 0.66729606324281954 17 2190 21 1303
10854 -5.4878837218953365 4.9498039017916566 -0.1281847815969909 148 146 140 0.94670813337795168 5 4495 21 890
10858 -6.4448373666008552 3.2606743672788552 2.0128617684401706 164 164 166 0.79171723287190177 10 5089 21 1677
11674 -3.7585697325007899 5.6773635140844849 -0.58900040513114171 98 102 117 1.3431757058095255 26 5598 22 5945
10859 -6.1249814821777182 2.9394299483728092 2.5214015533042642 210 207 202 1.2059793659781233 5 3519 10 5131 8 2964
12191 -5.0499556881131857 4.8674243730194915 0.096047068286285106 216 219 213 0.86693912402569884 19 1804 21 2111
10860 -4.1031110591401134 4.3699036695952422 1.2138339618989635 171 166 136 0.87131197348199541 10 5139 21 593
10862 -4.9672102747294815 4.619141662016637 0.44648849929085188 161 148 115 2.3280974271515773 5 4442 10 5187 21 2336
10863 -10.58131772775951 5.9024474161409382 -3.8884229145982303 205 205 203 1.0326019769691888 10 5415 21 2728
10864 -14.795835104510601 3.6677024535294116 -1.9923576125367026 195 191 192 1.7314899120865332 5 5276 10 5419 21 3671
11746 -3.0946195660963078 3.7685483267845941 2.4449885088656091 114 96 79 1.5070480997523179 26 7604 22 6847 12 7553
10867 -17.378644482037377 1.8217006435494258 -0.27176505866029499 196 195 192 0.7959921171692218 5 5274 10 5426 21 4015
12263 -10.62580403099212 2.9861633464692074 0.72382797187717396 174 176 180 0.71707797459531475 19 7234 21 8487
12257 -8.2820466812267792 2.1631624518135695 2.8977282596789267 74 78 91 0.45454364572870554 17 4512 21 6973
10870 -9.0141888775275945 5.8638860983691723 -3.3672991596875947 170 160 133 1.509024744923614 5 5323 21 6552
11754 -2.6777700310596493 3.7101835699937502 2.6473019731392906 189 180 149 0.071748136314278094 26 7580 22 6886
10875 -11.001852207464724 4.6334795323432152 -2.0670516807912307 199 194 175 1.4803321761002994 5 5329 10 5458 21 2775
12271 -8.1337835641699598 1.7288732924315562 3.2512430855993277 140 134 125 1.4849638851730607 8 4083 5 5005 10 5069 21 5207 17 5772 19 4864
10876 -17.048959698852201 1.1744743986073503 0.91845372708231676 143 132 114 0.62776887272075932 5 5302 10 5459
12265 -8.2585238878206511 2.1905837000384816 2.8480095003406789 83 88 94 0.095523425254301506 19 7375 21 8757
10878 -10.915327481194975 4.6782097063262027 -2.0675250200784339 215 212 193 1.285548020651466 5 4760 10 5461 21 2782
10879 -18.624568139652929 0.09619013652735095 1.8698546672787346 191 184 174 1.9092385358967192 5 5295 10 5463 21 5226
12054 -11.917548076160067 0.97799704787769626 3.3029262896321239 205 206 206 0.74282647333225738 22 2590 19 4523
10881 -17.164840245607106 0.89944473940827452 1.3380781857242685 190 185 185 0.69303529666235342 5 5314 10 5472 21 5114
11539 -5.3372616707050105 1.2949928618746842 5.168509352827833 112 115 124 1.4026766952938905 3 3029 26 6121 22 4727
10882 -16.626587716631878 1.2368311018507674 1.0591236362373817 190 184 168 0.61966430483342172 5 5315 10 5473 21 5103
10883 -16.045874645549166 1.5332760348273862 0.89026095919931347 143 139 124 1.6502509638372942 5 5324 10 5478 21 5092
12052 -9.9436883866838706 1.9865604782328548 2.4389176406049597 145 138 119 0.054551911746802823 22 4205 19 4400
10887 -8.7735720475999095 5.4973368698644194 -2.3332522355227403 198 191 183 1.2144195671954525 10 5490 21 2890
12062 -8.3655953872590469 3.9565021935004512 0.14926630568247237 222 224 219 0.017451919810514811 22 3970 19 4725
10889 -8.6803379628480268 5.4504556190585394 -2.2410232626124862 133 134 139 2.2521632562881195 5 4693 10 5495 21 2350
11547 -8.7566804544723809 1.1449991499647818 3.8176579434322475 119 123 123 1.3679294360646159 26 4318 22 4812 19 4771
10890 -17.26420639668666 0.2140562712085641 2.360523713485013 191 183 172 1.2024376499433906 5 5335 10 5497 21 6469
10894 -8.7066032960581339 5.1346457836177262 -1.8091150349477509 182 176 152 1.8183287656177793 5 5395 10 5507 21 2912
12060 -12.279207054297183 0.76148892166131987 3.3234624023855344 210 211 207 0.86576044679160169 22 6449 19 4550 21 4816
10895 -16.09992557618267 0.83074176976965275 2.0209462068743749 210 206 201 0.097089594263859588 5 4739 10 5510
12134 -4.4765623212827919 6.018368745787753 -1.4497699474439731 63 66 73 1.2029913940615882 22 5993 19 8041
10897 -7.627524825355442 5.7975907525552808 -2.2876414575254764 136 139 144 1.2175429632345023 10 5515 21 2971
11619 -5.7322320113727718 4.888751346142076 -0.20516359954995081 198 186 165 1.3772776914037932 26 5331 22 5520
10898 -15.959368690894861 0.73303209977496464 2.2118361173050283 208 202 189 0.88398783425241234 5 5356 10 5518 21 5052
10899 -7.6220448967397312 5.6812871605848594 -2.1599774164585828 138 144 154 3.1625828866722867 5 7066 10 5519 21 4745
10901 -7.438095687401713 5.5255185432201159 -1.8374585686954634 152 147 135 0.52914237584661095 5 4625 21 1400
12132 -4.8647986201251578 3.7452691704582604 0.866196759617473 130 130 132 0.068469931468213258 22 5336 19 7922
10903 -13.754864744155592 -0.039609178025744374 4.1780712865764045 209 202 192 0.0031520337312369662 5 5458 10 5604
12142 -2.500992535485584 5.5617080042808462 0.020340851127619505 126 99 71 0.71703569723969041 22 8566 19 8718
10905 -7.0679040660620114 3.150833251052287 1.899398981331617 185 185 173 0.72255373039363568 8 4620 10 5685 21 2168
11627 -2.9236598462263506 4.2824176994297316 1.7425283774503413 105 89 64 0.56174623385305178 26 5091 22 5570 19 4660
10906 -7.8551491547998591 2.0030764507771304 3.1970168738603348 192 183 156 0.43050459195584873 5 5588 10 5727 21 4575
10910 -2.9953913135790065 4.0249024327555434 2.0908811818725388 169 169 145 1.4219879284250905 10 5946 21 3465
12140 -3.7028819137798314 5.9064004882206032 -0.92839469723700119 94 81 54 0.38046504615275967 22 6035 19 8317
10911 -5.6124462792907401 1.6538467836645852 4.554225327921424 112 122 132 0.20214522506371629 5 5887 10 6027
10915 -3.3170037908623606 3.0066510363946648 3.5324988484538076 237 234 219 0.19554933700653207 5 6119 10 6163
11579 -7.9922569306764553 3.731176729471223 0.50088413993075986 88 92 103 0.72239975011405966 26 3805 22 5158
10922 -5.0034680696629108 0.34122973930280465 6.5633497124119691 221 218 199 1.0419293054552647 5 6212 10 6369
12249 -9.8670757184100175 4.5436845163029087 -1.4461739742039925 184 184 182 1.9719375152773397 19 4921 21 6606
10926 -3.7948795930950676 -0.19123377379900933 7.7699860617311751 228 228 216 1.0672226241759937 8 4133 10 6618
12092 -4.4834877887131812 5.5831818636870478 -0.72996754474289605 152 138 101 0.210415131440717 22 4619 19 5703
10927 -1.2241785381281569 1.6637666040162691 6.0179550385847591 90 90 100 0.76307112956365208 5 4141 10 6681
12038 -5.2849696474882499 4.6698225574188594 0.30956047035711148 63 72 81 0.90658598166899951 22 2999 19 3594 21 4496
10929 -1.2117603983845833 1.2296306131000583 6.6245899298215072 107 113 130 1.6627871747263023 5 6623 10 6749 8 4354
10933 -1.658031674104576 0.15074384633703436 7.995501281025617 129 106 70 1.394504093738687 5 5068 10 6878
10935 -3.0805907195096953 4.1675364643282418 1.8834839462678132 186 183 168 0.56050637421796723 10 7099 21 3446
12046 -5.4875592942003761 5.0239408189725809 -0.29128265429284128 87 90 99 0.45911995894135826 22 3047 19 3905
10937 -6.2629450237523541 5.0454650638810694 -0.69819803031322547 178 170 147 0.59428321440514076 5 5501 21 3084
11531 -7.413757163057844 3.1971549759884157 1.6592734440802963 101 112 108 0.28607854817567152 26 3006 22 4681
10938 -11.234549017744316 1.1888036643526647 3.269912448581004 198 189 172 0.63569856487747034 10 7148 21 8565 19 6737
10942 -3.4526852361536569 4.2143334827644381 1.6617281667461332 197 194 183 0.21070348552541746 10 7293 21 4205
12044 -2.6255700877955528 4.0221280586533164 2.2178026872858312 121 102 81 0.1591174256063046 22 5500 19 3863
10943 -5.1791151178321364 2.8066789223890907 3.2188208312146234 118 137 165 0.062062496959256426 5 6969 10 7333
11603 -3.0893672362641644 3.5128234601337409 2.7939955399813305 132 119 100 0.59037743915815866 26 7494 22 5366 19 3725
10946 -3.3809375496326357 3.8094143004176964 2.3001987520377076 182 177 158 0.94579788497366946 10 7371 21 4289
10947 -4.6862143233631848 -0.13872219809495737 7.2981684821189807 174 170 146 1.040560848938636 5 8017 10 7416
12116 -12.31349492378266 0.44080080372680014 4.0481096548559297 209 209 207 0.2888441617348102 22 7122 19 7040
11301 -9.7405299193116406 1.1056956400381439 3.7771289157742558 99 106 122 1.2990224673785873 26 2830 22 2628 19 2523
10951 -5.4179939573951321 -0.018553606756944615 6.9492164969015846 148 134 105 1.7362081638206099 5 6194 10 7904
10953 -4.7639455163416322 0.16226275205716245 7.0053980220441989 169 158 130 0.015926062006206727 8 8599 10 8056
12332 -2.8958079106304746 -0.93885063794997647 9.0630144680657541 216 215 204 1.9914403428740017 23 1088 26 1124 12 1385
10958 -2.6838787106667903 0.16358255734477101 7.6567444307141521 92 92 99 0.029509200511519687 8 6920 10 8414
12124 -8.4668100998186144 3.8029977985951389 0.31048278880902869 169 162 139 0.040818651106729359 22 5148 19 7467
11309 -7.8347136237784056 1.0394124133409557 4.6842522102998148 214 212 200 1.8632533614502211 26 2816 22 2654 19 2126
10959 0.10572767753623398 2.4089301048714624 5.3128089745132998 99 104 110 1.2845196467058153 5 5013 10 8429
12336 -5.9864734987235062 -0.41566124735514814 7.3908448167666316 172 166 140 0.72241360831817825 26 2335 12 1462
11683 -5.5336768874448792 5.1226410442999333 -0.44282826286926658 105 104 100 1.0103237373942064 26 8052 22 6207 19 6673
10962 -12.07663444860566 4.963982792716247 -3.186692317186429 111 125 138 0.50803579315003655 10 8566 21 5112
10963 -11.691524446158748 5.2513389446024377 -3.4263509461378852 192 196 197 0.52916242979319383 10 8650 21 5101
10965 -11.106227867090253 5.3953889915522275 -3.2584666573923231 170 168 154 0.053146070328578154 10 8750 21 6495
12196 -9.3702064210831075 3.4133604021013015 0.58003602610743188 168 166 155 0.67360665824578447 19 2639 21 2281
11317 -5.9673465369069776 0.8812761389198368 5.6023402037505106 218 218 216 1.6449071806153135 26 2788 22 2680 12 2218
10967 -16.086447046132687 2.0508059113486423 0.01085669806451204 194 186 167 0.81109370021373461 5 6998 10 8758 21 9587
12351 -7.1733954184798208 2.1099992831451018 3.4170036860977038 235 229 215 0.46942460588330648 26 2906 12 2067
10969 -15.041735591145441 2.4956544865097325 -0.22557725949561247 189 183 170 1.557463940555033 5 7005 10 8763 21 6464
10974 -16.290369192203944 1.4151102035377372 0.96251605022319076 170 155 134 1.0192630784945969 5 7011 10 8778 21 6461
12204 -14.349512935344114 0.83407437945181429 2.6359006419056921 100 104 116 1.5834185214731398 17 2213 21 2436
11325 -7.2802759736639322 1.8618144371528205 3.7090834895943998 222 214 209 0.47080212381003861 26 3434 22 2716 19 2039
10975 -16.326201096157877 1.2117958626015621 1.2655009587778632 194 186 162 1.4044927480973 5 8348 10 8781 21 6468
10977 -10.509764003295635 4.1240152330285609 -1.029478626517768 205 200 181 1.4455456694908129 5 5372 10 8789 21 2841
11635 -2.4344178921992632 4.228167389393878 1.9739513973744078 121 99 69 1.0196713409228717 26 5064 22 5608 19 4609
10978 -8.773067079039361 5.3107863543819178 -2.0563800707224553 136 134 136 2.0434190722292724 5 5390 10 8790 21 4837
10979 -8.7113261552975398 5.4123492608209265 -2.1178815067452059 138 143 149 1.3516815724982281 10 8791 21 4832
10981 -7.9438404158945195 5.4668202843444558 -1.9611075626112371 185 182 173 2.5137600861275611 5 7064 10 8804 21 3635
12148 -5.9327660525777475 -3.8671721200280129 12.334823750341913 100 108 124 2.4822133890963505 11 2767 23 1797 2 2095 14 1990
10983 -7.5873239725213013 5.5279677137242862 -1.9539551402122801 167 160 150 0.34893157304038369 5 5433 21 2981
12158 -4.8067381485178045 3.1697746735291488 2.7535248262556427 206 207 193 1.6830946060362437 19 482 21 263
10985 -9.0363936793280768 4.48497033905912 -1.0200680623627338 208 202 188 1.6462047000599895 5 5415 10 8811 21 2925
11643 -2.2465141555707002 4.2753135628289902 1.955826708823555 215 212 203 1.4783353566348196 26 5085 22 5655 19 3568
10986 -7.729903865741008 5.4335411265177553 -1.8104074356461441 186 177 160 1.8668197747640718 5 5438 10 8815 21 4731
10990 -1.5261145072091151 0.21655086995547043 7.9741962207618569 137 128 106 1.6247990045914313 5 1486 10 1463 3 3629 14 1680 17 1708 8 1707
10991 -2.1209342466709815 2.0676356679817696 5.2243808383995898 38 44 55 2.6550485058707163 5 1110 10 1375 2 1646 8 1118
12102 -12.137628154993374 0.83302941495084237 3.3345588709050675 170 165 146 0.68411540906846224 22 6474 19 6436
10993 -0.79462654359160079 1.0378269462373468 7.0324535945195148 82 85 87 1.6447990554161902 5 4260 10 4421 3 7936 2 5043 14 4626 17 4913 8 3807
11587 -6.8806135628449416 3.9978024091586906 0.72793224848500382 97 105 114 0.84917284433247286 26 6592 12 6680
10994 -10.29105621965719 -0.047419731216807613 5.4562531969719865 111 115 128 2.3789482240026003 8 1874 10 2236 2 1232 14 1188 17 2083
10997 -4.2562333870031699 1.1431403048681532 7.0712788467547272 210 205 186 2.0979638574131751 5 338 10 161
12100 -11.910490184437716 -0.05121249248057208 4.9810569907699422 126 113 80 0.96693243027354614 22 6376 19 6423
10999 -8.7376728602948894 1.300325798062681 3.6259983765844037 139 141 136 2.2424717999227441 5 132 10 198
12110 -5.3125163769636714 5.1448687039817864 -0.41131635414132356 95 89 79 0.54108405789320335 22 5675 19 6742 21 7096
12108 -5.5345649548626117 4.9630482354450054 -0.22233021197442876 81 76 70 0.85009685504053889 22 5565 19 6647 21 8867
11007 0.37287975166897452 2.4485482803834353 5.3361062581756178 217 213 201 1.5777866836484646 5 800 10 1247
11442 -5.3985048756771592 5.4045309061106597 -0.85704492833362667 214 213 206 0.775767875228635 26 4872 22 3875
11011 -6.8537110888121475 1.0757802525925972 5.0035350602218278 125 131 147 0.83838029004810277 5 2082 10 2323
11959 -11.713989099463657 0.89518970250743757 3.4899663281412772 214 215 210 2.0987207685280493 22 720 19 999
11953 -11.109313706842039 0.88720674712583758 3.7086606496448828 96 107 125 1.2675903905942898 22 715 19 717
11014 -0.012039389172343365 0.97654677765140852 7.358246675241026 0 0 0 2.3168050561608942 5 2597 8 3215
11450 -4.7317751827888026 5.3466104576123135 -0.5917138681667129 89 78 69 0.077291561155880928 26 3308 22 3916
11019 -11.058132684854446 1.1032099308175096 3.4248537965317882 197 187 166 0.6176999556874655 5 5499 10 5634 8 6151
11020 -8.7448266027784491 1.2781902694952882 4.2432716719082455 119 126 133 2.9556903405751296 8 2848 10 5771
11961 -11.171865528122188 1.6678659742179676 2.4553701013299833 215 208 192 1.1880858823214853 22 1134 19 1065
11022 -3.3368381761292136 1.6072814667750952 5.4132121781642901 111 124 140 0.37600869134576198 5 6319 10 6404
11394 -4.510338432386134 6.0227912829102435 -1.4045103643911576 102 92 88 0.40958424254749726 26 3412 22 3453
11027 -1.466445971494877 2.9221466214794161 3.6785112317735944 105 115 135 0.18470460572597752 5 6337 10 7850
11911 -3.2023253070331585 3.4050994812090671 2.8844471674449981 227 228 218 1.57783764092103 26 1072 22 888
11028 -4.9460528744018362 0.64670998738932783 6.2391488411621383 156 164 166 0.35892993166247622 5 7861 10 7854
11905 -5.7830018796083955 -1.2332628858520014 8.6989889325352312 225 223 211 1.9849187834300379 3 5608 2 6015 14 5492 17 5900 22 6339 11 4415 26 4649 24 3769
11030 -1.3712683158977845 0.36355131978853794 7.6529999431814746 192 186 150 3.1599728381969534 5 3685 10 8556
11034 -7.5287959796230881 -0.82116972874324679 7.495032456615367 224 220 211 0.82733972359959573 3 131 26 96 22 74
11402 -3.0333632951087055 5.5154163693384897 -0.014110629624062232 93 104 129 0.22772301151957614 26 5538 19 8493
11035 -4.7821151282454117 2.5223228272306897 0.21517406715493118 0 0 39 1.5108411271087883 26 112 22 85
11919 -4.9441259480211226 2.4466392688583376 3.7172647630258462 206 204 192 0.67655691371416227 26 4185 22 4061 19 2834
11036 -4.492997083084397 3.4026631684254274 1.0977281350283572 1 12 74 1.5729042660568826 22 97 12 74
11913 -9.3385278439833641 -0.48485216837691036 6.7537332290815382 104 111 121 0.3366046637256993 26 1155 22 1191
11038 -5.5522353919211778 5.284623754388865 -0.70057773213040442 226 224 209 1.1517839806234964 26 165 19 231
11040 -6.1608596965905793 1.4653582677368759 5.0522598660278781 85 96 118 2.4889683506717581 26 239 22 189
11857 -3.6337908725295982 4.1175677869556653 1.7311044937637534 226 228 227 0.80972354790063772 26 6632 22 8696 12 5941
11050 -4.0379130800904814 5.7513217586838765 -0.81833177970007975 211 206 186 1.0200453517176837 26 316 22 284 19 446
11354 -3.3274644152811756 4.5770709559956755 1.1868061497886124 224 226 222 0.96086535024197628 26 3171 22 3059 19 3069
11051 -2.2615750006490685 5.501810087605997 0.210800692825759 189 178 151 1.2922829158625211 26 306 22 295 19 274
11052 -6.6368943362238548 3.9261580976219785 0.83036128734975567 190 187 154 0.9509241961226429 26 328 22 310
11865 -3.3039036136250108 4.5761950843262866 1.1888136090969004 223 225 216 1.1617867880542447 26 7759 22 8780 19 5801
11720 -2.8929435042901366 3.730447409180055 2.5530903149911084 195 189 167 0.61961834154290718 11 3488 22 6616 19 5771
11055 -9.6781694856028686 1.2164879527106156 3.6891253068532976 91 102 125 1.0949836577502392 26 237 22 329
11056 -9.6885233975600773 1.5225323421990777 3.2096350010270784 88 98 123 1.8681424033776364 26 243 22 332
11943 -3.8802580608331714 5.8748097646182105 -0.94505718066961819 220 223 216 0.20053304091546836 22 780 19 508
11060 -7.1190792994766205 3.7088334235328224 1.0699982535704347 224 222 210 0.090843121454885822 22 417 12 131
11937 -4.542944788476146 2.8164823342701926 0.57051523667781101 50 0 0 0.13510929315449241 22 238 19 211
11728 -3.1122150440288956 3.3948242225878009 2.9748210706900982 117 104 85 0.39978941119678202 26 7426 22 6690
11062 -4.5849296812763844 5.5273046174529563 -0.6773978289081789 226 224 209 1.2702453029101279 26 309 22 449 19 457
11066 -2.8282373175447555 4.5036865589718502 1.4299519614242191 225 228 221 2.4473325438596913 26 521 22 472 12 482
11951 -9.696528843528414 1.9431525875867626 2.6485624900195655 208 205 190 1.6213540213937214 22 380 19 688 21 412
11068 -2.9387039520952105 3.4641657657575591 2.9372390130771926 120 107 73 0.64980376271055607 26 572 22 499
11945 -5.3748179419632969 5.6176511646782998 -1.1515341000866848 218 216 201 1.7941153336447722 22 455 19 563
11071 -10.031974571564083 0.81105419163890402 4.0952732727138565 202 199 192 0.66800481294424707 26 234 19 349
11506 -9.1647775422541446 0.088521995204580359 5.191443352148962 84 83 85 0.84633303850593211 26 4467 22 4419 19 3674
11075 -5.7006423224889877 5.2337766458068868 -0.74126164291476171 89 98 115 1.3902767558835163 26 498 22 558
12023 -5.4699251143613425 4.3415943295923975 0.69485677038905247 220 221 216 0.41915651539769594 22 1942 19 2890 21 2120
11076 -4.339401256332355 4.7520335696501066 0.58725786640574806 199 203 204 0.18247831161272954 26 518 12 287
12017 -8.9334465854343286 2.9797056544847496 1.3896818993484179 114 115 117 0.047713812144390452 22 2775 19 2648
11078 -3.341638352712748 3.5188698214873844 2.7109201663679698 228 228 217 1.2766577124340293 26 1067 22 593 19 462
11079 -6.6827579178109948 3.6963214994214275 1.1434894641023006 101 109 130 0.95216312669521541 22 612 12 379
11514 -3.1806913255068658 5.068657938456842 0.50650829906878414 224 229 223 0.98617934163166387 26 4755 22 4501 19 3100
11083 -2.306882534046709 5.1811770740823988 0.62957219810469789 190 184 159 2.3185270372651177 26 1068 22 628
12031 -2.1501399778468739 4.174412134007822 2.1226505972567247 114 97 75 1.5244320003730072 22 3773 19 3134
11084 -4.4339992572702966 2.3126439244474661 0.23180214469764554 3 39 49 0.076359961585185876 26 613 22 657
12025 -4.5007488455309099 3.3418656792445738 2.5270751026716525 226 228 223 0.78172860804679489 22 2889 19 2904
11086 -8.859448295539174 2.295363990897215 2.4411429084251082 211 212 198 1.4289345968785832 26 609 22 669 19 675
11458 -4.4140570263070975 2.796929034630296 3.3921825087572617 133 144 146 0.29734223399172993 26 6326 22 4003
11091 -9.7574753202125191 1.3684965204244059 3.1326800337494758 201 198 191 0.97994156895066875 26 641 22 696
11307 -8.8942659496228575 1.1474156432967455 3.8950383048527768 110 110 112 1.3325648178102925 26 2182 22 2645
11098 -7.248973063633672 3.6606855711078672 1.003506264642327 102 110 131 0.23555636370487393 26 563 22 863
11977 -3.9161705808625733 4.5940709946038787 0.9805311020846148 174 166 146 0.43570873358858508 22 936 19 1461
11102 -5.9359044943964943 5.1578318006695287 -0.80927972350400124 97 100 109 0.29814194182842102 26 994 22 939
11820 -1.9959326908501671 4.16647587451315 2.1822668756677568 128 107 77 2.7924228952457484 26 6655 22 8015 19 6096
11103 -2.9434031546361421 4.4023301584932977 1.5597098209537239 225 226 223 1.6431246555259935 26 924 22 940 19 512
11104 -5.5388586020032884 5.1449975139104591 -0.49371279773510007 227 227 215 0.76254942167447071 26 988 22 946 19 1521
11107 -5.4726925756816653 5.3292658303741227 -0.73835498313441084 83 77 79 0.18510107958754946 26 813 22 959
11108 -3.048583989191636 4.6973386062208959 1.0708190255821772 209 209 199 1.3644200652075071 26 1077 22 964 19 938
11921 -3.3852853262579967 3.382467084163062 2.8960719247141835 219 218 216 1.0685066905749567 26 6445 22 5325
11110 -5.307244009276201 5.4748540756818018 -1.0042088265020761 216 216 204 1.7754636781336417 26 1025 22 972 19 868
11111 -5.4048783180087998 5.5588269679523403 -1.0857958035565249 101 105 117 1.1640733922070534 26 1028 22 974 19 1503
11114 -2.0466812503210812 4.9274514838435683 1.1018460499997187 51 66 89 1.2654663741397281 26 1575 22 986 19 988
11418 -3.6971525039113891 4.2227025812786172 1.6016315805514798 216 219 212 0.51254326411117301 26 3117 22 3675 12 3091
11115 -3.4469189359053627 5.4435648911457752 -0.17597340232360456 217 217 205 2.0639848315388512 26 1019 22 990 19 1426
11935 -5.0291678829215165 2.8642583738570715 3.0658657958124444 97 107 132 0.64180537023006612 22 308 19 170
11116 -3.0932676117316995 5.3834957834662758 0.080895073290031663 223 224 216 1.6480241385722281 26 1010 22 991 19 966
11929 -3.8316435720365658 2.8253341858029004 3.5163226459247081 170 157 138 2.6736968196532338 11 6424 22 7720
11118 -3.2257878488290084 5.4427934833659863 -0.11497724435714443 217 218 212 1.1818849490629699 26 1021 22 994 19 961
11119 -2.445897439936449 5.2609974245573081 0.48063899578664598 58 70 92 1.9656136414942533 26 1000 22 997 19 972
11120 -3.0467060456171944 5.4384972731550398 -0.00061550257799012525 218 219 214 2.2813322584896647 26 1017 22 998 19 967
11122 -2.1075235246706296 5.7940882776547902 -0.1657232581213364 62 70 93 0.023863356912175247 26 1037 19 1361
11490 -8.6467225604976896 1.211985122005143 4.1334818664142734 201 197 194 1.9698638580791459 26 4300 22 4249 19 2586
11123 -4.5596155797748388 3.8847972286823693 1.4574908815584784 41 41 49 1.7471589209889675 26 1074 22 1041
12007 -11.616961660484151 -0.62373817741588655 5.9893100372841683 209 206 197 1.1372503007890298 22 2483 19 2293
11124 -3.6437739063210777 4.5976367162741463 1.0415559104484458 108 95 73 1.201437662267115 26 1601 22 1048 19 910
12001 -10.146454307103332 2.655943418521181 1.4556347444860291 95 106 128 1.1957605209023421 22 1317 19 2168 21 2295
11126 -3.8190731257479991 5.8421438193478199 -0.86258521330316607 219 218 206 0.14927633203980623 26 1038 22 1054
11498 -9.8956042308228742 0.82430326952708666 4.1011256232577242 208 205 198 1.5736086344955755 26 4344 22 4330 19 2514
11131 -8.2337312711332427 0.27698383760745138 5.7169225421046086 108 113 117 1.5445416804869962 26 1179 22 1114
12015 -10.017438889744115 3.0762476146098985 0.81577165034548804 221 220 215 1.3785281045903344 22 2011 19 2594
11132 -9.647856490661308 1.3570983436188784 3.3343767174758341 210 210 201 2.150597180811582 26 1220 22 1132 19 1079
11133 -9.2324986355661753 1.4101828004776498 3.7070970284161566 110 113 118 1.436743609099765 26 1225 22 1139 19 1091
12009 -12.582252065481708 0.34384107783201051 4.1570917503449225 213 213 205 0.80454594475319907 22 2540 19 2428
11134 -9.1390249469212801 -1.6032057502886845 8.1291787710737466 212 209 200 0.71583994587230537 3 1097 26 2399 22 1153
11135 -11.217486139636122 -0.74639112838174315 6.1689908994957694 219 218 213 2.1536263496488721 26 1149 22 1168 19 1039
11798 -7.2963863623124556 3.2261199374365361 1.6699217640094635 126 132 128 0.062966729055967272 26 7401 22 7637
11137 -9.1671862618069504 -0.54256076164881095 6.5287653046222589 220 212 200 0.86117341907607936 26 1384 22 1181
11283 -11.266269859694814 -0.55647977290664363 5.9217965752645751 215 215 205 1.425995290678638 26 2312 22 2490
11138 -11.273745306103971 -0.27268298130531976 5.5834694733216379 220 220 210 0.12075438294702398 22 1184 19 1043
11139 -11.665997373089835 -0.15814716578454324 5.2528359543240839 157 149 129 1.4628620278938025 26 1413 22 1186 19 1116
11796 -7.2461505756708906 3.1553815833559202 1.7757958236315017 189 184 153 0.46470956960770604 26 7379 22 7622
11143 -8.0672570134922132 0.060017772606168203 6.0828691294125354 98 103 123 0.98199270053144605 22 1215 12 1539
11806 -4.6460966581358329 4.5554647746627914 0.77161935182427421 81 69 55 2.0469036646582306 26 7750 22 7812 12 6228
11145 -9.7956980184212252 1.0502327922921451 3.6383833984748515 113 117 128 0.45895166633012385 26 1454 22 1252
11291 -11.043166864671775 0.38458492250416249 4.4767557421543183 202 200 188 1.8873360408585376 26 2764 22 2559 19 2258
11146 -5.9402123803662068 0.35934424966247752 6.320990804318984 168 156 130 1.051863840466096 26 1415 22 1254 12 1093
11150 -9.5359344854398227 1.6435738315345256 3.1732697646481332 211 211 203 0.83905251978280537 26 2134 19 2555 21 3039
11804 -2.6414875840884346 3.8828609296817516 2.4298317667734874 109 94 73 1.7490121604978255 26 8377 22 7776 19 8182
11151 -7.9745990054193321 1.3090169647153005 4.3078231181461604 95 103 118 0.30227454986798791 26 1472 22 1280
11878 -5.6263858802969553 -0.9101294901776833 8.2818072362957604 238 236 223 1.9885422400114479 3 1133 2 1098 14 1072 22 1189 11 1175 26 1358 24 581
11153 -3.4278786997851456 2.1843838614872304 -1.9727384838911299 98 105 120 1.7521460758027527 26 6170 22 1284
11363 -5.3225310050825234 5.5127744925149109 -1.0543454359282742 84 77 67 1.0096502748279006 26 2597 22 3121
11154 -9.7835743502116443 1.8749632060258208 2.5970365567822538 94 101 111 1.9967792741535657 26 1518 22 1285 19 1179
11155 -6.6461041276594992 1.2992999745173488 4.7937918466956315 215 215 203 0.43438487834953116 26 1467 22 1291 12 1567
11157 -5.4005733602355521 1.3079267475215444 5.1429540145303934 212 206 196 1.4719738142530063 2 1535 26 1457 22 1302
11876 -5.2454505692294617 -0.4600553610422054 7.7345160306636602 241 236 223 1.2055876169594522 3 2876 2 2627 14 2548 17 2674 8 2618 22 2571 26 3631 24 2223
11159 -7.3701067659304567 1.9248646850039792 3.5965509969980061 95 103 114 1.6403715017775973 26 1490 22 1310 12 943
11886 -4.7566823029225782 0.57406221710172789 6.4176644516191779 229 229 221 1.2121597428989321 3 4025 2 3738 22 4865 11 4080 26 4952 24 3275 23 3516
11161 -8.9541386160550527 2.5303238578641305 1.9498031795305055 101 107 129 1.2402041713569736 26 1755 22 1320 19 1216
11371 -4.2321500769997495 5.9616970591803966 -1.2219727967186143 94 84 75 0.99717162270434179 26 2649 22 3211
11162 -8.9037537696947275 2.5126511943069398 2.0424951047705693 222 222 212 1.4031616528406614 26 1254 22 1321 19 1218
11166 -6.5113703132291549 4.7002519219217822 -0.23433627180481506 219 220 204 1.17453120368774 26 946 22 1379
11884 -5.9019615061778969 -0.33518349893380633 7.3587441558835609 231 232 219 1.5063240817621233 3 2869 2 2606 14 2519 17 3909 22 2574 11 3066 26 4547 12 4501
11167 -7.5971024556677689 3.3749492499394167 1.3149615945508102 208 203 181 0.17826467323550035 26 1700 22 1384
11474 -8.2545347918545371 2.275179115381273 2.7110125408967782 96 100 101 0.85995203260208974 26 2913 22 4152 19 3320
11171 -2.1298160038582532 4.8733533854395752 1.1459334818313862 78 69 54 1.3867968822559373 26 1584 22 1453 19 975
11323 -7.7902593499479638 1.8789151842822751 3.4749059711401582 98 99 93 1.4076017936998888 26 2891 22 2713 19 2672
11178 -2.9292323180267763 4.3444529416049473 1.6644566419990847 220 225 221 1.0580101737965526 26 1875 22 1516 19 1437
11993 -7.3807388610374431 4.3416749657732225 -0.033303809478895392 98 107 136 0.29297181489807961 22 1857 19 1942
11182 -6.5925346510203306 4.2257475663008446 0.3927834154744162 206 203 184 0.9167534396744621 26 1626 22 1576
11836 -3.8852264586399405 5.0519100260306162 0.28212065817704723 176 174 159 1.3833107129374447 26 7987 22 8184 12 6750
11183 -5.8118835440095689 -0.022585518118473081 6.9657523621561097 215 216 210 0.23686658523317414 3 1164 22 1578
11782 -5.670212841285811 0.85735876005570677 5.69034788695211 179 171 152 0.46076282766209864 3 6064 22 7361
11185 -6.6781130423450437 4.1417455565225181 0.49876242336144494 215 213 200 1.3174714006943158 26 905 22 1587
11267 -11.062955089265685 -0.96025455330969023 6.5780402358710575 172 166 140 0.30281727602229014 26 2346 22 2289
11186 -6.5174801750364662 3.9664248114216352 0.91348085471960561 193 191 168 2.7720134217362151 26 1655 22 1601 12 591
11189 -3.682684026352733 3.9858603851553758 1.8926933367238825 191 185 162 2.2091216540653473 26 1657 22 1658 19 1472
11780 -5.9177510281317387 0.86819779921888929 5.5920665270476366 179 178 178 0.28118983322801377 3 6044 26 6989 22 7349
11191 -2.0270721853771598 5.1548048128521406 0.77875466102804103 203 201 186 1.5008768559410444 26 2522 22 1663
11790 -3.6563006209946236 4.3196875706256144 1.4297857165239118 177 175 160 1.429633929514835 26 6601 22 7448 12 5192
11193 -3.308157046424625 4.3941413710769845 1.472172982830005 220 225 222 2.1792149794301614 26 1865 22 1687 19 1708
11275 -4.9799268056173513 5.895085783371365 -1.4060294097361232 188 176 139 1.8191653090933917 26 2636 22 2381
11194 -2.6294196539624557 4.9165664974857739 0.90701133859182548 210 214 213 1.91949723107422 26 2469 22 1690 19 1638
11195 -4.8127372048019943 5.4878567078362179 -0.77958441516335231 199 199 189 0.42020181823347863 26 2594 22 1696 19 2990
11788 -5.9796943587880413 1.7080274941809694 4.124419391389762 99 102 92 2.0250112862984868 2 1771 26 7070 22 7422
11199 -5.5626993013643844 5.3939559507631927 -0.96491692662115169 222 219 210 1.1625010072064272 26 1534 22 1731 19 2918
11347 -4.4490236527388589 4.7079142688572722 0.57960140327205711 75 62 44 1.6018226465607386 26 3193 22 3040 12 2555
11202 -5.6747968160481985 5.2511369527598228 -0.76009751419425109 87 89 105 0.43316632997047866 26 2544 22 1745
11203 -3.3443121051575226 4.5313882692654923 1.2529885602754631 227 229 228 0.74549173257006007 26 1847 22 1757 12 1903
11860 -7.3510594176292443 3.2200904284925955 1.6873823323343993 219 220 212 0.50109475090305799 22 8726 12 3910
11557 -7.085405631000711 1.3963454892971683 4.3427164015461228 101 110 119 2.2435010906468134 26 6148 22 4888 12 2904
11207 -2.5382749692655486 4.2671176907669421 1.8998370020186837 223 222 217 0.46682758795243551 26 1884 22 1765
11870 -2.0945736609681975 5.439931583133033 0.32508148144562898 118 96 85 0.88949538745000523 26 8208 22 8823 19 6268
11209 -4.4936485642219299 4.7533608946343211 0.49381892455356086 138 132 108 1.7152688541907211 26 2443 22 1767 12 2568
11214 -2.6001835402725439 3.3360688266847496 3.2203130152956327 213 211 198 2.0095505386159709 26 3003 22 1841 12 4261
11868 -5.3692656483416741 5.6258552213324968 -1.1923003391750597 75 69 57 1.2133298968466983 26 4262 22 8798 19 6804
11565 -8.7512038015973008 2.4291451715863994 2.2715027826159373 219 217 205 1.0834521731545608 26 6268 22 4940 19 4878 21 6897
11427 -4.2647154456254981 4.7782240306795174 0.53510028258856257 84 72 47 0.36871685984493241 26 4053 22 3783 19 3663
11218 -3.7264797871051614 4.020841332372016 1.8360429150133619 184 173 151 0.65236607066099384 26 1870 22 1854 19 1750
11221 -3.6056256604788022 3.3408965641319188 2.8687684609745507 225 226 212 0.52737302204238801 26 2003 22 1866
11940 -9.6841505959768135 2.1213587030849075 2.2808318206506741 196 188 167 2.0870495939484499 19 313 21 355
11573 -4.4515159915559677 2.6093495989933504 0.29811149302220741 170 177 170 0.55526351031832721 26 6329 22 5055
11950 -10.011523183269404 2.5145505688116145 1.6761168630917951 224 222 207 1.9045747266288249 22 672 19 685 21 702
11225 -6.9867180677289307 3.6872445908043536 1.1016425675003596 222 224 210 0.67930615875165312 22 1911 12 1224
11230 -3.8640750689710583 2.290603584632414 3.994202351034323 103 114 136 0.075950952930113433 26 2908 22 1966
11948 -4.813114907679223 -0.08571672672677394 7.1749266559581848 0 0 0 1.043396167792388 8 1053 17 1164
11581 -6.9627353316175293 3.7169591524481898 1.061644818410356 94 105 108 1.1705431812729699 26 7622 22 5204
11231 -7.5554547953774627 2.8337007719356389 2.1276110145929716 224 222 209 0.21452650135597418 26 2040 22 1981
11894 -5.0267423453321358 0.46032071288659721 6.5016043319668499 228 222 204 1.0065104344779912 3 5988 2 4618 22 4837 11 4048 24 3267
11233 -8.3684411576485616 2.1858057603301346 2.7567851014670439 101 107 121 1.0156041634678201 26 2089 22 2050 19 2637
11379 -11.969253235632367 -0.27328187359766593 5.2620942379779105 172 171 153 0.56446724596743814 26 2292 22 3289
11234 -8.6807202425501284 2.1198603647274874 2.8157268378738189 196 194 182 2.3125370077698748 26 2093 22 2055 19 2621
11235 -7.9040967101653168 1.9101988568451949 3.3680495165855229 224 222 208 0.25985143031489666 26 2123 22 2060 19 2083
11237 -9.3642587719744608 1.8205439381550028 2.9671484491669013 214 212 200 1.2538266028344049 26 2126 22 2074 19 2164
11892 -5.9251407835463459 -0.59939110447668986 7.6970117087757881 192 188 171 0.85720979657788965 2 1901 14 1854 22 4420 26 4580 24 2222
11239 -7.6165132527661381 1.3003450265579608 4.4039165930218536 219 218 206 0.3601135948686372 26 2174 22 2091
11902 -5.1831549592663153 -0.42034050200720208 7.7085966192688256 190 186 175 0.80727782518944624 2 6190 14 7077 22 7162 26 4566 24 3906
11241 -9.4469075906026063 1.2928759235600655 3.6816166966835517 216 215 210 0.17178735999092715 26 1475 22 2126
11387 -11.712409799411031 -1.210864989639155 6.652180861404358 172 170 155 0.35130171676719468 26 3625 22 3405
11242 -8.6415711288857082 1.1504202254477931 4.0509604311105933 80 88 101 0.69771979530325035 26 2184 22 2130
11246 -8.7926387296256365 0.92879910644477259 4.069076076280977 210 207 202 0.405845137225324 26 2806 22 2151
11900 -5.7597183945141417 -0.98803029616629201 8.2889664205097056 225 221 216 0.95097905234648272 3 5628 2 6039 14 5529 17 5915 22 7063 11 8129 24 5091
11247 -6.1760154636500353 0.29471078882779739 6.3660472594466624 166 155 128 1.283142320871556 26 2283 22 2156 12 1508
11846 -4.5420926486819706 5.5737657066039992 -0.7363052674128947 86 85 90 0.19727802640522951 26 8253 22 8366
11249 -6.5605993078306017 0.10661491074702917 6.5974779463060127 174 169 147 1.5706646610405626 26 2714 22 2175 12 2773
11331 -7.8564435133165098 2.7462217632325854 2.0458948445432212 98 107 112 1.2610172551342227 26 4919 22 2774
11250 -9.8856761765843029 0.68958573332424133 4.4676054395187945 217 214 205 0.12123851548986425 26 2794 22 2180
11253 -10.073607316876693 0.60973534143243702 4.2621017733398361 202 198 195 1.6375185611803784 26 1429 22 2204 19 1146
11844 -2.5270324875199424 4.8868316406867747 0.989105980914738 210 205 193 1.3702656566571561 26 7903 22 8284 19 6085
11255 -11.404868183410276 0.37853938191999431 4.408780987819096 213 214 208 0.59866836732646289 26 2249 22 2220 19 2262
11854 -2.2210150555312129 5.5375595870884551 0.14191421395912496 203 196 170 1.2606071499565166 26 8243 22 8597 19 8774
11257 -10.205867626352479 -0.06134218330004227 5.4573539725268567 217 217 210 1.3422430000502168 26 2288 22 2235 19 2243
11339 -4.9405534640862685 3.7729608239142451 0.87886435046231404 151 148 141 2.1213083721897039 26 1931 22 2929
11852 -4.3022397979355809 5.9932847879976521 -1.3094886673799826 112 92 68 0.3509959798661999 26 5681 22 8549
11263 -12.0573881046052 -0.24783293651958468 5.2086352825861839 209 210 204 0.25247175962748236 26 1408 22 2261
11265 -6.9481722491020763 -1.0476107182123613 8.0568631155969364 175 166 144 2.1878104761787114 26 2376 22 2264 12 3641
12212 -10.828289651109891 2.9785396388489338 0.64368671237432318 211 211 211 0.01273995211571116 8 2700 21 2892
11269 -11.440148518885785 -1.0008264743411659 6.5456742678941584 187 184 175 0.65050287167935006 26 1564 22 2291
11273 -5.0712640813960057 5.764350892886414 -1.3596540544278055 190 186 174 1.2305040988126879 22 2364 19 1765
11274 -5.0884903445150798 5.8327941324276988 -1.382161758791709 200 196 184 1.6188793905808962 26 1511 22 2369
11277 -2.3840933782019391 5.2584051260109552 0.49837468537394819 50 53 62 1.9939590049296427 26 2540 22 2402 19 2345
11280 -2.4416816042440157 5.5251198331542053 0.079289652805419136 197 192 173 1.2520542856118608 26 2596 22 2422 19 2354
11281 -2.0317487081868397 5.7913484072430865 -0.14686151051064039 102 83 53 2.3909150085145328 26 2620 22 2461 19 2385
12164 -6.7351085673461881 2.5597534870833356 2.9060380732332458 222 223 210 0.10160830025446281 19 630 21 534
11285 -11.381179830694743 -0.45244448077390298 5.744924098391464 225 223 211 1.1180988841089696 26 4503 22 2498 19 2279
12168 -8.7985821209642605 4.6164853277630398 -1.0875840573377209 221 224 225 0.23378446375242473 19 640 21 713
11289 -11.69492572799474 0.15648679831843154 4.7024986304094973 172 166 152 0.11470810534423106 26 2749 22 2533
11290 -7.1912422208886975 -0.38799330702111684 6.9797165369379703 219 221 216 1.7176177560463226 3 2067 26 2673 22 2547 12 2748
12172 -10.165026054165795 2.4951140517868113 1.6123345473902799 92 100 121 1.5108224233394019 8 1624 19 1086 21 1193
11293 -6.9797215579481815 -0.063809501145040012 6.6482418586940861 139 132 104 1.3111541724371645 26 2701 22 2583 12 2769
11295 -9.783703835742406 0.81048999251410592 4.3132847642407137 217 214 209 1.9888241696850713 26 2803 22 2605 19 2521
11296 -9.6225828839621652 0.81113433615755492 4.4567392164552455 116 121 128 1.967592209429478 26 2219 22 2611 19 4431
12112 -4.4362110825793994 5.6788712866636644 -0.84352127652165643 66 69 70 0.82962910343103813 22 8424 19 6948
11297 -10.460169981548011 1.0313091114836093 3.7314104839752376 212 210 205 1.5710205759097431 26 2185 22 2614
11306 -8.092833413270176 0.90268522142637431 4.8223731163246599 216 210 198 2.008656815687766 26 2804 22 2643 19 2143
11311 -8.5981934599315917 1.2008086283842827 4.1955914366791118 202 198 193 1.8870259381706165 26 2837 22 2657 19 2590
11312 -8.0803610295918702 1.1380156911528321 4.4650356132499498 103 110 120 0.038614589765536896 26 2825 22 2663
12192 -7.2187701492033707 2.0271279815574377 3.5012003425755482 219 219 209 0.22500561308656125 17 2644 21 2133
12200 -10.862173332866522 3.6909982627296984 -0.50117848944943133 175 172 155 0.7165537486408784 8 4762 21 2403
11321 -4.8469269171672922 1.1512971292014966 5.6109506689228645 97 108 131 1.4041269579822517 11 6039 24 4180 26 4338 22 2705
11322 -5.3508819886039358 1.3739922959864994 5.0667439736652478 101 108 124 1.6853714592195657 26 2839 22 2712 12 2194
11327 -8.7375042064743749 2.3942541715170376 2.2941627370857316 108 118 114 0.41326839851208008 26 2923 22 2738
12272 -9.7760231317540995 1.9493419571451627 2.5284136193320559 151 151 134 1.5918184083530951 17 4120 8 3937 5 4544 10 4977 21 4702 26 4217 22 4208 19 4393
11329 -4.4531147861272231 2.3657784760765548 0.21234130560588718 191 193 188 0.64539920482498891 26 3435 22 2768
11330 -8.5460739161713111 2.8445789586068329 1.6952086655888499 98 108 120 0.70858035035930111 26 2975 22 2771
12276 -7.3565124444850092 5.2618384384280601 -1.3857947255808793 203 202 198 1.8489512760673263 5 2758 21 834
11333 -7.5267408159076883 3.1928226688322776 1.5589921290303317 228 226 214 1.2562456215302413 26 2009 22 2807
